# .PCD v0.7 - Point Cloud Data file format
VERSION 0.7
FIELDS x y z rgb
SIZE 4 4 4 4
TYPE F F F F
COUNT 1 1 1 1
WIDTH 1015
HEIGHT 1
VIEWPOINT 0 0 0 1 0 0 0
POINTS 1015
DATA ascii
0.19574472 -1.4251711 0.84439862 5.7193829e-39
0.20429002 -1.4251747 0.84439665 5.7193829e-39
0.2156833 -1.4251759 0.844396 5.7193829e-39
0.22280408 -1.4251763 0.8443957 5.7193829e-39
0.25983256 -1.4251808 0.84439313 5.7193829e-39
0.15904425 -1.4115407 0.84559858 6.4573094e-39
0.1622581 -1.4153197 0.84344923 6.272558e-39
0.17465861 -1.41083 0.84275109 5.9037741e-39
0.18314475 -1.4108841 0.84272003 5.5346315e-39
0.19491032 -1.4165295 0.84439397 5.7193829e-39
0.20483084 -1.4165252 0.84439641 5.7193829e-39
0.21475172 -1.4165239 0.84439713 5.7193829e-39
0.22404012 -1.4159511 0.84439641 5.7193829e-39
0.23425351 -1.4136572 0.84439486 5.7193829e-39
0.24527289 -1.4161166 0.84439558 5.7193829e-39
0.25493062 -1.4162749 0.84363401 4.2435297e-39
0.26218751 -1.4196364 0.840994 1.8449958e-39
0.15468848 -1.4048225 0.84559667 5.4424344e-39
0.16529642 -1.4046669 0.84273523 6.640979e-39
0.17560931 -1.4047232 0.84137201 5.442433e-39
0.18563387 -1.4052804 0.84231687 4.3357253e-39
0.195216 -1.405115 0.84439635 5.7193829e-39
0.20507382 -1.4051149 0.84439635 5.7193829e-39
0.21493149 -1.4051141 0.84439689 5.7193829e-39
0.22478925 -1.4051133 0.84439713 5.7193829e-39
0.23457201 -1.4039565 0.84343815 3.8743857e-39
0.24437131 -1.40692 0.84281993 2.9517077e-39
0.15482958 -1.3982974 0.84150237 3.3208504e-39
0.18909244 -1.399128 0.84296781 0
0.194709 -1.399128 0.84296781 0
0.20453796 -1.399128 0.84296781 0
0.21577105 -1.3991278 0.84296787 0
0.2256148 -1.3992246 0.8429122 9.219563e-41
0.2088515 -1.7180473 0.8500576 1.0408286e-38
0.35955793 -1.6149802 0.85449833 4.8777434e-39
0.36088762 -1.6044183 0.85445452 5.2458042e-39
0.3641274 -1.5949687 0.85465795 5.3372782e-39
0.46470332 -1.5946194 0.85582179 1.2977979e-38
0.36832029 -1.5869875 0.85545701 6.3507015e-39
0.37177432 -1.5822566 0.85418832 4.9717397e-39
0.45756716 -1.58292 0.85472322 9.8519858e-39
0.37677217 -1.5767626 0.8548457 5.6142224e-39
0.38246953 -1.5720702 0.85441828 5.5231086e-39
0.44578537 -1.5716733 0.85519022 8.2817748e-39
0.45223695 -1.5769715 0.8559708 9.6647051e-39
0.38734639 -1.5689905 0.85413665 4.9713782e-39
0.39500505 -1.5654248 0.8553744 6.1659529e-39
0.40509373 -1.5626477 0.85425436 6.9103576e-39
0.41462326 -1.56181 0.855021 8.7575002e-39
0.42402479 -1.5626923 0.85457444 6.8170802e-39
0.43372944 -1.5653877 0.85492557 6.9024403e-39
0.44050393 -1.5684894 0.85507518 7.5456503e-39
0.098695904 -1.5309728 0.85377854 8.6689368e-40
-0.066550694 -1.5280352 0.85529655 1.1779175e-40
-0.063099317 -1.5174042 0.85407656 1.1779175e-40
0.093893826 -1.5165555 0.85587013 8.6581328e-40
-0.05816872 -1.5070113 0.85448074 1.1779175e-40
0.086864293 -1.5029567 0.85560703 8.6437134e-40
-0.051512361 -1.4968754 0.85547078 1.1779175e-40
-0.047189921 -1.4912707 0.85443515 1.1779175e-40
0.07947465 -1.4928207 0.85361189 8.6328954e-40
0.08252427 -1.4966764 0.85490656 8.6364967e-40
-0.042585149 -1.4863569 0.85538417 1.1779175e-40
-0.038027294 -1.4819899 0.85604948 1.1779175e-40
0.067380622 -1.4818047 0.85614842 1.4132179e-39
0.073402941 -1.4868617 0.85456151 9.536817e-40
-0.03355854 -1.4785914 0.85454845 1.1779175e-40
-0.024645062 -1.4731712 0.85497314 1.1779175e-40
0.049651366 -1.4706454 0.85550404 9.5079922e-40
0.055540528 -1.4739275 0.85484254 3.8020128e-39
0.062939532 -1.4786421 0.85452133 8.1236705e-39
-0.014347371 -1.4682899 0.85457039 1.1779175e-40
-0.0055831405 -1.4656949 0.85487109 2.2321634e-39
0.0046033566 -1.4637094 0.8559441 8.3923261e-39
0.014753868 -1.4633307 0.85614878 8.7603869e-39
0.024901316 -1.4642053 0.85567623 4.3468951e-39
0.035067495 -1.4658558 0.85478425 8.5535819e-40
0.04380852 -1.4682822 0.85457462 8.5715886e-40
0.35992837 -1.621973 0.86331475 8.3699866e-39
0.3601892 -1.6246947 0.86549145 8.4625409e-39
0.35966814 -1.6192567 0.86114079 8.0966423e-39
0.36090711 -1.6049854 0.86631364 8.4596584e-39
0.36399332 -1.5953437 0.86525112 8.4603787e-39
0.46332079 -1.5920219 0.86228365 1.4896059e-38
0.36817187 -1.5871416 0.86365187 8.4585794e-39
0.37152052 -1.5825644 0.86521703 8.5608602e-39
0.45799628 -1.5834445 0.86478192 1.4175063e-38
0.46194381 -1.5894315 0.86871338 1.4803142e-38
0.3763997 -1.5772078 0.8651191 8.4614605e-39
0.38341305 -1.5713434 0.86392087 8.2709456e-39
0.4478547 -1.5732436 0.86639678 1.2134154e-38
0.45253634 -1.5771732 0.8644526 1.3069078e-38
0.38802975 -1.5686269 0.86612296 8.3627811e-39
0.39487037 -1.5654869 0.86466402 8.3627811e-39
0.40457058 -1.5627023 0.86481363 8.4675842e-39
0.41457623 -1.561879 0.86553407 8.6653046e-39
0.42541617 -1.5629886 0.86432999 8.7394879e-39
0.43581855 -1.5662274 0.86476004 1.0017618e-38
0.44267166 -1.5696541 0.86475974 1.1212197e-38
0.098472707 -1.5302582 0.86258918 8.6689368e-40
-0.066144928 -1.5248451 0.86535871 1.1779175e-40
0.098340139 -1.5298454 0.86784387 8.6689368e-40
-0.062801383 -1.5165464 0.86459178 1.1779175e-40
0.093061313 -1.5148408 0.86413783 8.6545174e-40
-0.057908252 -1.5065346 0.86475915 1.1779175e-40
0.086999059 -1.5033122 0.86476427 8.6473147e-40
-0.051949095 -1.4975474 0.86377829 1.1779175e-40
-0.047723629 -1.4920192 0.86567277 1.1779175e-40
0.079303093 -1.4927406 0.86363608 9.5512503e-40
0.082340501 -1.4965175 0.86497885 8.6364967e-40
-0.042385425 -1.4861244 0.86545354 1.1779175e-40
-0.037841715 -1.4817611 0.86609656 1.1779175e-40
0.067246638 -1.4817759 0.86608887 5.1827836e-39
0.073252149 -1.486858 0.86451733 1.1373527e-39
-0.033390049 -1.4784518 0.86454487 1.1779175e-40
-0.024506072 -1.4731107 0.86490482 1.1779175e-40
0.049571499 -1.4707165 0.86535317 9.5115936e-40
0.055443201 -1.4739792 0.8647182 1.1355506e-39
0.062819637 -1.4786509 0.86443973 9.3189697e-39
-0.01423615 -1.468354 0.86496639 1.6804315e-39
-0.0055027422 -1.4657301 0.8647241 7.1970283e-39
0.0046545616 -1.4637027 0.86580563 4.5309248e-39
0.014775108 -1.463343 0.86599743 2.50803e-39
0.024892874 -1.4642506 0.86551327 5.5421929e-39
0.035029624 -1.4659142 0.86462569 2.6016675e-39
0.043741465 -1.4683278 0.8649804 8.5716026e-40
0.35993028 -1.6112266 0.87711763 8.1888337e-39
0.36119229 -1.6040791 0.87536842 8.2810293e-39
0.36475834 -1.5934329 0.87534183 8.3725047e-39
0.46495855 -1.5950991 0.87967211 1.3540478e-38
0.36824447 -1.5868587 0.87509775 8.1855897e-39
0.37193274 -1.5820633 0.87571955 8.2835503e-39
0.45607305 -1.5810924 0.87618971 1.3075911e-38
0.46058559 -1.5868917 0.87508291 1.4166413e-38
0.37709737 -1.5764006 0.87507105 8.3728648e-39
0.3822524 -1.5721873 0.8747012 8.2759861e-39
0.44630703 -1.5720208 0.87449247 1.1680378e-38
0.45222148 -1.5768398 0.8748557 1.2703171e-38
0.3878468 -1.568724 0.87542838 8.277428e-39
0.39489758 -1.565428 0.87478656 8.2756273e-39
0.40498233 -1.5626951 0.87500215 8.5637413e-39
0.41539705 -1.5618302 0.87542796 8.7575002e-39
0.42477459 -1.5628194 0.87494063 8.5615791e-39
0.43454054 -1.5656813 0.87466156 9.6578373e-39
0.44124579 -1.5688888 0.87534708 1.0670906e-38
-0.065854102 -1.5235478 0.87438101 1.1779175e-40
0.098171473 -1.529439 0.8747465 8.6689368e-40
-0.062483028 -1.5153042 0.87523174 1.1779175e-40
0.093179025 -1.5152668 0.8735919 8.6545174e-40
-0.057647895 -1.506032 0.87498587 1.1779175e-40
0.08680395 -1.5031866 0.87478608 8.6473147e-40
-0.052962344 -1.4989077 0.87367749 1.1779175e-40
-0.048287347 -1.4927301 0.87521434 1.1779175e-40
0.079132549 -1.4926605 0.8736009 9.5512503e-40
0.082158767 -1.4963816 0.87497896 8.640098e-40
-0.042186614 -1.4858861 0.87546462 1.1779175e-40
-0.037657008 -1.4815274 0.8760851 1.1779175e-40
0.067113437 -1.4817473 0.87597102 7.2975154e-39
0.073092982 -1.4868342 0.87497282 1.2295483e-39
-0.033223271 -1.4783311 0.87447149 1.1779175e-40
-0.025254067 -1.473529 0.87436354 1.1779175e-40
-0.019938681 -1.4707043 0.87682271 1.1779175e-40
0.04949199 -1.4707817 0.87514824 9.5115936e-40
0.055346113 -1.4740176 0.87454361 9.5152089e-40
0.062700532 -1.4786631 0.87429816 7.848164e-39
-0.014124562 -1.4683731 0.87532341 6.8293262e-39
-0.0054225978 -1.465754 0.87452531 2.2321634e-39
0.0047055343 -1.4636921 0.87561101 4.162864e-39
0.014796209 -1.4633576 0.87578732 1.1290598e-39
0.024884487 -1.4642986 0.87529188 1.0372243e-39
0.034991894 -1.4659663 0.87441367 6.6474586e-39
0.043675184 -1.4683896 0.87531495 8.5716026e-40
0.35967505 -1.6137775 0.8845064 6.8174109e-39
0.36099422 -1.6040653 0.8856588 6.6330183e-39
0.36412013 -1.5949935 0.88484269 6.5411842e-39
0.4635846 -1.5925186 0.88601792 1.1976747e-38
0.36838213 -1.5868839 0.88632584 6.5411828e-39
0.37181008 -1.5822115 0.88499653 6.540824e-39
0.45885324 -1.5844947 0.88474971 1.1423934e-38
0.37676528 -1.5767673 0.88555562 6.540824e-39
0.38241288 -1.5721121 0.88506365 6.5404653e-39
0.44576317 -1.5716822 0.88346922 9.6736636e-39
0.45216021 -1.5769678 0.88565379 1.0410504e-38
0.3872444 -1.5690444 0.8847456 6.5404639e-39
0.3953428 -1.5653185 0.88469702 6.3567943e-39
0.40536368 -1.5625727 0.88518786 7.0958083e-39
0.41425768 -1.5618087 0.88555884 8.6656647e-39
0.42416281 -1.5627503 0.88543797 8.0181247e-39
0.43474385 -1.5658376 0.8847267 7.9230326e-39
0.44161245 -1.5690856 0.88540089 8.9364601e-39
-0.065514803 -1.5221237 0.88507098 1.1779175e-40
0.097919792 -1.5288328 0.88504738 8.6689368e-40
-0.062161703 -1.5139785 0.88583916 1.1779175e-40
0.092959613 -1.5150026 0.88367635 8.6545174e-40
-0.057389244 -1.5055338 0.88514549 1.1779175e-40
0.086608708 -1.5030328 0.88476229 8.6473147e-40
-0.052722264 -1.4984821 0.88378239 1.1779175e-40
-0.048068155 -1.4924302 0.88522297 1.1779175e-40
0.078962721 -1.4925736 0.88351035 9.5512503e-40
0.081978351 -1.4962519 0.88491607 8.640098e-40
-0.041988626 -1.4856404 0.88541859 1.1779175e-40
-0.037477538 -1.4813939 0.88596153 1.1779175e-40
0.068165697 -1.4827112 0.88593948 5.5504858e-39
0.073790587 -1.4875634 0.88513535 1.0455186e-39
-0.033058684 -1.478242 0.88432246 1.1779175e-40
-0.025686849 -1.4737403 0.88501626 1.1779175e-40
-0.019835416 -1.4706635 0.88498163 1.1779175e-40
0.049412936 -1.4708467 0.88488698 9.5115936e-40
0.055244099 -1.4740571 0.88485277 9.5151949e-40
0.062582545 -1.478691 0.88409132 7.5722988e-39
-0.013724791 -1.4683001 0.88555539 6.2775957e-39
-0.0053429729 -1.4657817 0.88426775 1.1779175e-40
0.0047562281 -1.4636809 0.88535959 4.3468937e-39
0.014817188 -1.4633718 0.88551998 9.4503008e-40
0.024876155 -1.4643475 0.88501304 1.1779175e-40
0.034954417 -1.4660221 0.88414276 6.8314884e-39
0.043320846 -1.4683522 0.88552839 1.6847573e-39
0.35974544 -1.6200734 0.89528072 8.2957962e-39
0.36013252 -1.624114 0.89855313 8.2028789e-39
0.35947964 -1.616601 0.89175665 7.6486191e-39
0.36091024 -1.6045933 0.89563859 7.7411777e-39
0.3642002 -1.5949148 0.89450735 6.8181326e-39
0.36823621 -1.5870428 0.89437926 6.5408254e-39
0.37155834 -1.5825167 0.8958407 6.5411842e-39
0.45693532 -1.5821476 0.89601344 1.0871479e-38
0.46176299 -1.5890939 0.8944245 1.170016e-38
0.37669754 -1.5769053 0.89513046 6.4486284e-39
0.38334703 -1.5713857 0.8943947 6.540824e-39
0.44730541 -1.5727917 0.89540434 9.5814651e-39
0.45298132 -1.5774883 0.89485264 1.0410504e-38
0.38792226 -1.5686836 0.89652091 6.540824e-39
0.39478576 -1.5655072 0.89415431 6.3564342e-39
0.40485495 -1.5626752 0.89554012 7.0954467e-39
0.41510591 -1.5618834 0.8952812 8.6656647e-39
0.4255214 -1.5629659 0.89506638 7.7408148e-39
0.43527693 -1.5659719 0.8947438 7.9230312e-39
0.44197917 -1.5692825 0.89539719 8.8442644e-39
-0.065178119 -1.5207106 0.8956787 1.1779175e-40
0.097670645 -1.5282477 0.89527196 8.6689508e-40
-0.061876107 -1.5132436 0.89607888 1.1779175e-40
0.092741452 -1.514738 0.89369988 8.6545174e-40
-0.057131466 -1.5050244 0.89524657 1.1779175e-40
0.086414941 -1.5028867 0.89467543 8.6437134e-40
-0.052483726 -1.4980589 0.89382273 1.1779175e-40
-0.047850624 -1.4921385 0.89516634 1.1779175e-40
0.078766599 -1.492491 0.89498603 9.547649e-40
0.081799179 -1.4961272 0.89479166 8.640098e-40
-0.041790608 -1.4853684 0.89532524 1.1779175e-40
-0.037300337 -1.4812899 0.89576429 1.1779175e-40
0.068337776 -1.4829396 0.89492947 5.2742576e-39
0.074266948 -1.4880942 0.89557391 9.536831e-40
-0.032893687 -1.478117 0.89413339 1.1779175e-40
-0.025537625 -1.4736567 0.89532429 1.1779175e-40
-0.019713188 -1.4706506 0.89470291 1.1779175e-40
0.049334344 -1.4709111 0.89456987 9.5115936e-40
0.055143349 -1.474112 0.89509243 9.5151809e-40
0.062664188 -1.4788628 0.89467955 7.8481654e-39
-0.013904531 -1.468423 0.89584011 5.4503574e-39
-0.0055461922 -1.4658725 0.8945654 1.1779175e-40
0.0048065963 -1.4636726 0.89504939 4.3468937e-39
0.014838014 -1.4633961 0.89519119 9.4503008e-40
0.024867872 -1.464398 0.89467734 1.1779175e-40
0.035201773 -1.4661433 0.89442664 6.1875623e-39
0.043544758 -1.4685149 0.8957932 2.2364892e-39
0.35994333 -1.6110852 0.90960371 8.6649431e-39
0.36004442 -1.6100721 0.90668195 8.5723859e-39
0.36118847 -1.6041772 0.90329599 8.2957962e-39
0.36473674 -1.5934299 0.90517414 8.2957962e-39
0.46475458 -1.5947163 0.9052999 1.4839877e-38
0.36842003 -1.5865289 0.90405488 8.1110434e-39
0.37178117 -1.5822469 0.90538061 8.1110434e-39
0.45814288 -1.5836269 0.90540951 1.3549138e-38
0.46040463 -1.5865377 0.90068871 1.2994154e-38
0.37660122 -1.5769131 0.90471351 7.464588e-39
0.38246128 -1.5720133 0.90414828 7.0947223e-39
0.44554836 -1.5715029 0.9050566 1.0320481e-38
0.45228529 -1.5770593 0.90596104 1.2258038e-38
0.38774112 -1.5687798 0.9056688 7.0025252e-39
0.39449197 -1.5655724 0.90451318 6.4489899e-39
0.40471622 -1.5627445 0.90518337 7.0954467e-39
0.41502318 -1.5618144 0.90562272 8.7575002e-39
0.42430416 -1.562737 0.90518665 8.0177646e-39
0.43362564 -1.5653378 0.90437478 7.7386413e-39
0.4405683 -1.5685253 0.90578812 9.3063286e-39
0.097425252 -1.5277081 0.90540951 8.6689368e-40
-0.0632248 -1.5160233 0.90617251 1.1779175e-40
0.092524625 -1.5144749 0.9036622 8.6545174e-40
-0.056874346 -1.5044999 0.90529138 1.1779175e-40
0.086428113 -1.5030888 0.90528673 8.6437134e-40
-0.052246708 -1.4976391 0.90379924 1.1779175e-40
-0.047949422 -1.4922302 0.90453547 1.1779175e-40
0.078573458 -1.4924518 0.90636557 9.5440336e-40
0.081620984 -1.4960008 0.90460974 8.640098e-40
-0.042230286 -1.4857578 0.90553534 1.1779175e-40
-0.037122585 -1.4811476 0.90552807 1.1779175e-40
0.068202525 -1.4829106 0.90464801 5.5501242e-39
0.074113883 -1.4880466 0.90531754 9.536845e-40
-0.032924403 -1.4781107 0.90474576 1.1779175e-40
-0.025396742 -1.4735703 0.90503365 1.1779175e-40
-0.019591782 -1.4706413 0.9043656 1.1779175e-40
0.049256075 -1.4709691 0.90420055 9.5115796e-40
0.054753553 -1.4740018 0.90524471 9.5115936e-40
0.062327433 -1.4787111 0.90513617 7.2042394e-39
-0.013800025 -1.4684132 0.90548801 5.3581632e-39
-0.0051742122 -1.465776 0.9046824 1.1779175e-40
0.0048565944 -1.4636731 0.90467852 4.3468951e-39
0.014858682 -1.4634292 0.90480179 9.4503008e-40
0.024859624 -1.4644426 0.90428919 1.1779175e-40
0.034873053 -1.4661398 0.90503186 5.8198616e-39
0.043483131 -1.4685777 0.90540516 2.3283261e-39
0.35974118 -1.6131085 0.91544175 5.5306728e-39
0.36119273 -1.6034116 0.91477519 8.4801889e-39
0.36420691 -1.5947706 0.91535449 8.3879918e-39
0.46293816 -1.591305 0.91358781 1.4748043e-38
0.36836174 -1.5868839 0.91561365 8.3879932e-39
0.37205577 -1.5819132 0.91422617 8.2961563e-39
0.45778957 -1.5831947 0.9156372 1.3734614e-38
0.46158391 -1.5887597 0.91976327 1.4563653e-38
0.37675843 -1.5767719 0.91574037 8.2957962e-39
0.38210863 -1.5723482 0.91446215 8.4801903e-39
0.44763127 -1.5730605 0.91565162 1.1982897e-38
0.45291725 -1.5775582 0.91407108 1.2719739e-38
0.38714412 -1.5690973 0.91483241 8.3879932e-39
0.39516783 -1.5653788 0.914738 8.1110448e-39
0.40509322 -1.5626153 0.91519696 8.2032404e-39
0.41497299 -1.5618726 0.91584355 8.7575002e-39
0.42567906 -1.5630443 0.91466588 8.5723831e-39
0.43601397 -1.5662916 0.91458893 9.9549546e-39
0.44270459 -1.5696721 0.91522861 1.1153138e-38
0.09718927 -1.5273256 0.91540819 8.6689368e-40
-0.06293533 -1.5152578 0.91630667 1.1779175e-40
0.09231022 -1.5142365 0.91355228 8.6545314e-40
-0.056617301 -1.5039474 0.91528636 1.1779175e-40
0.085998766 -1.502583 0.91594791 8.6473007e-40
-0.052010268 -1.4972034 0.91372108 1.1779175e-40
-0.048912775 -1.4932319 0.91565925 1.1779175e-40
0.078409828 -1.4924406 0.91604567 9.5440336e-40
0.081443824 -1.4958749 0.91436958 8.640098e-40
-0.044392124 -1.4879292 0.91503865 1.1779175e-40
-0.038435843 -1.482215 0.9146381 1.1779175e-40
0.068067759 -1.4828725 0.91431445 5.9178249e-39
0.073961534 -1.487995 0.91500658 9.536845e-40
-0.032538719 -1.4778467 0.91519147 1.1779175e-40
-0.024959883 -1.4733359 0.9151842 1.1779175e-40
-0.019470781 -1.4706217 0.91397738 1.1779175e-40
0.049178015 -1.471014 0.91378242 9.5115796e-40
0.054944351 -1.4742213 0.91538495 9.5151809e-40
0.06221002 -1.4786824 0.91477913 7.0205684e-39
-0.013695434 -1.4683764 0.9150933 5.2663277e-39
-0.0048270877 -1.4656863 0.91527218 1.1779175e-40
0.0049061906 -1.4636859 0.91424561 4.4387306e-39
0.014879131 -1.4634775 0.91434956 8.5319458e-40
0.025179433 -1.4645348 0.91431081 1.1779175e-40
0.034547195 -1.4661266 0.91557437 5.1759341e-39
0.043421831 -1.4686389 0.91496301 2.4205203e-39
0.35982138 -1.6208755 0.92881227 3.5942129e-39
0.35951447 -1.6164929 0.9240303 3.5023816e-39
0.3605566 -1.6056401 0.92550945 8.2957976e-39
0.46723497 -1.6022307 0.92369223 1.3457314e-38
0.36358061 -1.5963312 0.92467326 8.3879932e-39
0.36801139 -1.5874504 0.92534775 8.3879932e-39
0.37159574 -1.5824708 0.92594022 8.3876317e-39
0.45744026 -1.5827678 0.92580819 1.3642055e-38
0.46068472 -1.5870675 0.92385989 1.4471819e-38
0.37669134 -1.5769086 0.92515469 8.4801903e-39
0.3832821 -1.5714272 0.92434996 8.2957976e-39
0.4462882 -1.5720052 0.92474669 1.1798506e-38
0.45211828 -1.5767555 0.92522317 1.2813018e-38
0.38823143 -1.5685189 0.92633855 8.3883534e-39
0.39483091 -1.565459 0.92438513 8.3879932e-39
0.40506792 -1.5626568 0.92537272 8.5727446e-39
0.41522774 -1.5618585 0.92511147 8.7578604e-39
0.42504272 -1.5628657 0.92497754 8.6649403e-39
0.43468297 -1.5657344 0.92475784 9.8627604e-39
0.44129887 -1.5689176 0.92549676 1.0968746e-38
0.09695714 -1.5269927 0.92532247 8.6689368e-40
-0.062651284 -1.5145565 0.92634457 1.1779175e-40
0.092065133 -1.5140311 0.92497963 8.6581328e-40
-0.056362387 -1.5034066 0.92521256 1.1779175e-40
0.08612597 -1.502929 0.92512071 8.6437134e-40
-0.051775504 -1.4967738 0.92357844 1.1779175e-40
-0.048684526 -1.4927362 0.92552203 1.1779175e-40
0.078245886 -1.492397 0.92568541 9.5440336e-40
0.082005829 -1.4968002 0.92517024 8.6364967e-40
-0.044187102 -1.4876294 0.9247908 1.1779175e-40
-0.038255442 -1.4820677 0.92429715 1.1779175e-40
0.068130814 -1.4829899 0.92475933 5.6419597e-39
0.073810004 -1.4879411 0.92464018 9.536845e-40
-0.032376781 -1.4777236 0.92481881 1.1779175e-40
-0.025102939 -1.4733858 0.92534488 1.1779175e-40
-0.019326735 -1.470469 0.92518246 1.1779175e-40
0.049088214 -1.4711027 0.92487276 9.5043769e-40
0.054849789 -1.4742421 0.92492706 9.5115796e-40
0.061876971 -1.4785143 0.92511457 6.4688365e-39
-0.013590491 -1.4683045 0.92466003 5.1744922e-39
-0.0050001908 -1.4657462 0.92591435 1.1779175e-40
0.0046300679 -1.4637622 0.9242124 4.162864e-39
0.014899307 -1.4635512 0.92383015 8.5319318e-40
0.024557015 -1.4645038 0.9252578 1.1779175e-40
0.034794226 -1.4662312 0.92567658 5.7280261e-39
0.043361016 -1.4687052 0.92446357 2.4208804e-39
0.36020494 -1.6248803 0.9320938 4.0544637e-39
0.36107692 -1.604689 0.93427396 7.1880039e-39
0.36482382 -1.5932502 0.9353013 7.834095e-39
0.46365091 -1.5926441 0.93462139 1.4655486e-38
0.36847758 -1.5864192 0.9340899 8.4801889e-39
0.37200093 -1.5819798 0.93607163 8.4801889e-39
0.45779291 -1.5832001 0.93387806 1.3826088e-38
0.37659591 -1.5769166 0.93457508 8.3879932e-39
0.38214439 -1.5722684 0.93478692 8.3879918e-39
0.44575208 -1.5716714 0.93346137 1.1798869e-38
0.45205003 -1.5768532 0.93573248 1.299705e-38
0.38763726 -1.5688349 0.93539661 8.3879932e-39
0.39508966 -1.5653775 0.93499154 8.3879932e-39
0.40487158 -1.5627007 0.93459612 8.572746e-39
0.41465712 -1.5618049 0.93529934 8.7578604e-39
0.42443889 -1.5627978 0.93517685 8.7571359e-39
0.43498874 -1.5659062 0.93508053 1.0047513e-38
0.44166026 -1.5691116 0.93527204 1.0784712e-38
-0.067491949 -1.5292366 0.93559581 1.1779175e-40
0.096719414 -1.5265228 0.93523979 8.6653494e-40
-0.062372714 -1.513923 0.93628591 1.1779175e-40
0.091827564 -1.5139521 0.93627262 8.6617341e-40
-0.056108166 -1.5028528 0.9350825 1.1779175e-40
0.087144315 -1.5047878 0.9357664 8.6545034e-40
-0.05150228 -1.4962516 0.93500954 1.1779175e-40
-0.048461359 -1.4923176 0.93528646 1.1779175e-40
0.078078277 -1.4922348 0.93532568 9.5440477e-40
0.082597412 -1.4978005 0.93427962 8.640098e-40
-0.043984443 -1.4873557 0.93447143 1.1779175e-40
-0.038271628 -1.482111 0.93471223 1.1779175e-40
0.067776926 -1.4827653 0.93507886 5.7337952e-39
0.073854141 -1.4880086 0.9350664 9.536831e-40
-0.03198849 -1.4772613 0.93522829 1.1779175e-40
-0.02496157 -1.4732109 0.93492073 1.1779175e-40
-0.019181544 -1.470245 0.93634844 5.5421929e-39
0.048998553 -1.4711685 0.93590409 9.5043769e-40
0.055037588 -1.4744225 0.93496877 2.8822187e-39
0.06195892 -1.4786302 0.93547565 9.962537e-39
-0.013486044 -1.4682287 0.93417263 5.0826567e-39
-0.0049221469 -1.4657304 0.93538082 1.1779175e-40
0.0052975756 -1.4637436 0.93508399 5.2663277e-39
0.014922682 -1.4636403 0.93481946 9.4503008e-40
0.024832496 -1.464601 0.93592697 1.1779175e-40
0.034757774 -1.466274 0.93511814 5.635829e-39
0.043581508 -1.4688715 0.93449152 2.2364906e-39
0.35980591 -1.6124501 0.94582957 5.7143382e-39
0.36000609 -1.6104436 0.94006169 6.8206745e-39
0.36129496 -1.6030737 0.94492382 6.725574e-39
0.36429206 -1.5945511 0.94534159 6.5411828e-39
0.36809677 -1.5872672 0.94556791 6.9106897e-39
0.37151369 -1.5825711 0.94500875 7.7415378e-39
0.45674571 -1.5819188 0.94595003 1.2533899e-38
0.46140802 -1.5884306 0.94473004 1.1700523e-38
0.37675172 -1.5767764 0.94541329 8.3879946e-39
0.38274392 -1.5718842 0.94478077 8.3876331e-39
0.44727254 -1.5727655 0.9450888 1.1983258e-38
0.45286107 -1.5773715 0.94468307 1.2996689e-38
0.38745844 -1.5689298 0.94434422 8.3876331e-39
0.3948445 -1.5654811 0.94468969 8.3879946e-39
0.40482733 -1.562657 0.94469762 8.572746e-39
0.41505709 -1.5618948 0.94503784 8.757859e-39
0.42578042 -1.5630211 0.94453496 8.7571359e-39
0.43526429 -1.5659697 0.94538987 1.0047152e-38
0.44202161 -1.5693055 0.94499236 1.1153139e-38
-0.067118749 -1.5265692 0.94485903 1.1779175e-40
0.096460968 -1.5256153 0.94529563 7.7397778e-40
-0.06209461 -1.5132703 0.94617265 1.1779175e-40
0.089986518 -1.5105879 0.94899637 8.6473007e-40
0.091945462 -1.5143898 0.9453395 8.6545174e-40
-0.056182336 -1.5028865 0.94430029 1.1779175e-40
0.08574421 -1.5031099 0.94546539 8.6509301e-40
-0.051981956 -1.496703 0.94670093 1.1779175e-40
-0.048243862 -1.4919891 0.94494838 1.1779175e-40
0.077913307 -1.4921163 0.94488889 9.5512503e-40
0.081510819 -1.4964359 0.94413203 8.6401121e-40
-0.043981157 -1.4873492 0.94486904 1.1779175e-40
-0.037873067 -1.4818811 0.94496799 1.1779175e-40
0.06742572 -1.4825337 0.94533354 1.5043331e-39
0.073478848 -1.4876833 0.94538903 9.5404323e-40
-0.032031063 -1.4774891 0.9454689 1.1779175e-40
-0.025104951 -1.4733242 0.94493037 1.1779175e-40
-0.01906666 -1.4703566 0.94571233 5.726224e-39
0.048921969 -1.471213 0.94530553 6.2833635e-39
0.054650694 -1.4742675 0.944902 8.7665162e-39
0.061844345 -1.4786282 0.94493061 4.7218055e-39
-0.013630223 -1.4682907 0.94470155 5.3581632e-39
-0.0048445668 -1.4657156 0.94479251 3.2434314e-39
0.0050680446 -1.463851 0.94568187 6.5534609e-39
0.014945883 -1.4637384 0.94573563 3.9329824e-40
0.024824468 -1.4646515 0.9453001 1.1779175e-40
0.034721568 -1.4663209 0.94450378 5.3592436e-39
0.043228213 -1.4687655 0.94490308 3.6154593e-39
0.35954008 -1.6163467 0.95574307 3.6864113e-39
0.3606472 -1.6052057 0.95554227 7.0028854e-39
0.36367109 -1.5960993 0.95452571 6.6337385e-39
0.46435463 -1.5939659 0.95544136 1.1791992e-38
0.36807537 -1.5873475 0.95502967 6.6333784e-39
0.3716327 -1.5824267 0.95552874 6.6333784e-39
0.45793629 -1.583377 0.95511895 1.1147346e-38
0.46010369 -1.58603 0.95069945 1.1331736e-38
0.37638873 -1.5772099 0.95519161 6.8181312e-39
0.38295656 -1.5716705 0.95463759 7.834095e-39
0.44576272 -1.5716518 0.95534134 1.0782905e-38
0.45217699 -1.5769548 0.9554655 1.0595977e-38
0.38812408 -1.5685759 0.95571363 8.388352e-39
0.3948248 -1.5654668 0.95466179 8.3883534e-39
0.4052279 -1.5626454 0.95443171 8.4805504e-39
0.4154135 -1.5618254 0.95479226 8.7578604e-39
0.42457569 -1.5627805 0.95437199 8.7571373e-39
0.43396032 -1.5654655 0.95534909 9.8627618e-39
0.44063044 -1.5685588 0.95507258 1.0876912e-38
-0.066740684 -1.52449 0.95538348 1.1779175e-40
0.096167445 -1.523982 0.9556132 8.6617341e-40
-0.063394867 -1.5156075 0.95622188 1.1779175e-40
0.089837082 -1.5101446 0.95553613 8.6473147e-40
0.092957117 -1.5163506 0.95588541 8.6509161e-40
-0.060241714 -1.5096334 0.95576859 1.1779175e-40
-0.057144374 -1.5043603 0.95501477 1.1779175e-40
0.086772293 -1.5047603 0.95483178 8.6437134e-40
-0.052547425 -1.4975029 0.95500565 1.1779175e-40
-0.048033167 -1.4917754 0.95449877 1.1779175e-40
0.07775154 -1.4920563 0.95436925 9.5512503e-40
0.082221858 -1.497744 0.95489496 8.6436994e-40
-0.043561477 -1.4870424 0.95511818 1.1779175e-40
-0.037479706 -1.4816998 0.95513374 1.1779175e-40
0.067492478 -1.4827027 0.95556235 9.5296283e-40
0.073329426 -1.4876122 0.95485443 9.5404323e-40
-0.03188305 -1.4776586 0.95478243 1.1779175e-40
-0.024676457 -1.4734148 0.9552024 1.1779175e-40
-0.018956242 -1.4706001 0.9549616 1.1779175e-40
0.048845679 -1.4712502 0.95465726 7.1106004e-39
0.054552186 -1.474274 0.9548012 2.8822187e-39
0.06173062 -1.4786334 0.95432812 9.5223976e-40
-0.012973474 -1.4682201 0.95545357 8.1168196e-39
-0.0050452859 -1.4657899 0.95472908 6.4616254e-39
0.0051156976 -1.4639236 0.9549861 7.6135769e-40
0.014965612 -1.4638325 0.95502883 1.1779175e-40
0.024816483 -1.4647015 0.95462012 1.1779175e-40
0.034964982 -1.4664166 0.95443457 5.6354689e-39
0.04287868 -1.4686902 0.9552334 9.2242503e-39
0.359896 -1.6216635 0.96175152 3.7789628e-39
0.36027613 -1.6256335 0.96504128 4.239941e-39
0.36099938 -1.6050246 0.96499056 6.8192186e-39
0.36490944 -1.5930735 0.96491444 6.5411828e-39
0.46301144 -1.5914434 0.96142334 1.1699797e-38
0.36842117 -1.5865289 0.96514362 6.5408226e-39
0.3720344 -1.5819397 0.96548218 6.448627e-39
0.45758876 -1.5829521 0.96504802 1.0870758e-38
0.46167728 -1.5889378 0.96736509 1.1423569e-38
0.37706885 -1.5764238 0.96460897 6.448627e-39
0.38232711 -1.5721171 0.96553642 6.5408212e-39
0.44777387 -1.5731785 0.96600384 9.5811022e-39
0.45279521 -1.5774291 0.96336865 1.0318306e-38
0.38753518 -1.5688888 0.9646244 6.7252153e-39
0.39570093 -1.5651715 0.96573311 7.5571452e-39
0.40507275 -1.562645 0.96378404 8.572746e-39
0.41486305 -1.5618373 0.96477729 8.7575002e-39
0.42495447 -1.5628999 0.96399575 8.7567772e-39
0.4352746 -1.5660226 0.96521711 8.6616822e-39
0.44273663 -1.5696894 0.96427828 8.9364573e-39
-0.066400826 -1.5230118 0.9655599 1.1779175e-40
0.095925897 -1.5233511 0.96540928 8.6617341e-40
-0.063120753 -1.5150532 0.9659493 1.1779175e-40
0.09272287 -1.5156616 0.96567774 8.6545314e-40
-0.060069799 -1.5093446 0.96221316 1.1779175e-40
-0.058119964 -1.5061111 0.96555567 1.1779175e-40
0.088093095 -1.5069332 0.96487135 8.6473007e-40
-0.052524149 -1.4975958 0.96527368 1.1779175e-40
-0.047826141 -1.4916124 0.96396953 1.1779175e-40
0.077567972 -1.4920889 0.96531236 9.5512503e-40
0.082241885 -1.4978321 0.96516675 8.640098e-40
-0.043145861 -1.4867517 0.96529162 1.1779175e-40
-0.037501089 -1.4817983 0.96533108 1.1779175e-40
0.067362048 -1.4826732 0.96493101 9.5260129e-40
0.072961248 -1.4873587 0.96501511 9.536831e-40
-0.031918246 -1.4777039 0.96498764 1.1779175e-40
-0.024245674 -1.4733227 0.96549493 1.1779175e-40
-0.018843014 -1.470724 0.96421599 1.1779175e-40
0.04876864 -1.4712243 0.96398497 1.0422732e-39
0.054165971 -1.4741591 0.96511042 9.5151949e-40
0.061812613 -1.4787848 0.96449178 9.5187963e-40
-0.013153717 -1.4684179 0.96528029 1.6807902e-39
-0.0044181417 -1.4656457 0.96543694 2.0962724e-40
0.0051629823 -1.4640031 0.96423459 1.1779175e-40
0.014985227 -1.4639268 0.96426994 1.1779175e-40
0.025208222 -1.4648069 0.96474284 1.1779175e-40
0.034385577 -1.4663315 0.96511978 9.4575035e-40
0.043098502 -1.4687994 0.96510434 2.1446551e-39
0.35986924 -1.6118025 0.97568399 6.5437303e-39
0.36139593 -1.6027439 0.97455317 6.7255726e-39
0.36437568 -1.5943347 0.9748171 6.5408212e-39
0.46460491 -1.5944364 0.97800702 1.1699797e-38
0.36817768 -1.587157 0.97620249 6.4489843e-39
0.37155107 -1.582526 0.97427827 6.5408212e-39
0.45724496 -1.582532 0.97492307 1.0778562e-38
0.46034896 -1.5864408 0.97327691 1.1239538e-38
0.37685573 -1.5767159 0.97522759 6.448627e-39
0.38299608 -1.5716873 0.97521514 6.5408212e-39
0.44649723 -1.5721689 0.97447616 9.3963536e-39
0.45278883 -1.5774823 0.97543979 1.022575e-38
0.38735813 -1.5689828 0.9734236 6.5408226e-39
0.39458585 -1.5655848 0.97567028 6.5408226e-39
0.40473869 -1.5627061 0.97457051 7.5571452e-39
0.41512859 -1.5618768 0.97376305 8.6656633e-39
0.42553687 -1.5629636 0.97422791 7.6486177e-39
0.4345417 -1.5657003 0.97562069 7.7386399e-39
0.44135049 -1.5689455 0.97424096 8.659513e-39
0.099193811 -1.5374075 0.97504812 8.6725521e-40
-0.066083387 -1.5218762 0.97551328 1.1779175e-40
0.095698021 -1.5229664 0.97503632 8.6581328e-40
-0.06284941 -1.51452 0.97560662 1.1779175e-40
0.092505425 -1.5152944 0.97526598 8.6581187e-40
-0.058202151 -1.5063745 0.97451591 1.1779175e-40
0.087885179 -1.5064749 0.97447139 8.6473007e-40
-0.052068461 -1.497095 0.97552299 1.1779175e-40
-0.047584452 -1.4913874 0.97496253 1.1779175e-40
0.077374905 -1.4918442 0.97631073 9.547635e-40
0.081831805 -1.4972677 0.97544575 8.6364827e-40
-0.043147575 -1.4867822 0.97547865 1.1779175e-40
-0.037326556 -1.4816614 0.97468901 1.1779175e-40
0.067425892 -1.482777 0.97506893 9.5296143e-40
0.073010989 -1.4875059 0.9751541 9.5404183e-40
-0.031544153 -1.4774808 0.97503263 1.1779175e-40
-0.024390515 -1.4734323 0.97532344 1.1779175e-40
-0.018708073 -1.4707401 0.97500443 1.1779175e-40
0.048680626 -1.4712633 0.97476703 9.5115936e-40
0.05491947 -1.4747186 0.97535741 9.5115936e-40
0.061486885 -1.4786826 0.97448963 9.5223976e-40
-0.01305459 -1.4684495 0.97451043 1.1779175e-40
-0.0045903963 -1.465731 0.97574753 1.1779175e-40
0.0052174535 -1.464119 0.97494715 1.1779175e-40
0.01500795 -1.4640392 0.97498351 1.1779175e-40
0.024398312 -1.4647497 0.97531718 1.1779175e-40
0.034601945 -1.4664294 0.97542965 3.0254454e-40
0.043317061 -1.4689668 0.97488916 9.4935589e-40
0.35954601 -1.6153882 0.98559874 7.3731196e-39
0.36075139 -1.6048483 0.98502856 5.5281224e-39
0.36384854 -1.595611 0.98466533 6.2646001e-39
0.46282649 -1.5910964 0.98583221 1.0041731e-38
0.3682366 -1.5870441 0.98498058 5.3433724e-39
0.37166905 -1.5823832 0.9846198 6.2645987e-39
0.45842358 -1.5839754 0.98395795 9.3970851e-39
0.37654358 -1.5770385 0.98523939 6.0805689e-39
0.38312951 -1.5715193 0.98502952 6.1724058e-39
0.44618309 -1.5719987 0.98467875 8.5680419e-39
0.45261019 -1.5772915 0.98481417 8.5676873e-39
0.38806799 -1.5686054 0.9848811 6.172403e-39
0.39496815 -1.5653787 0.98532319 5.6199579e-39
0.40504166 -1.5626754 0.98518395 7.4642279e-39
0.41491815 -1.5618241 0.98479056 8.665306e-39
0.42408526 -1.5627166 0.98564297 7.9259277e-39
0.43491521 -1.5658969 0.98510665 7.0939978e-39
0.44197842 -1.5692827 0.98581028 7.3702302e-39
0.0989177 -1.5362622 0.98499709 8.6725521e-40
-0.065787442 -1.5210708 0.98525667 1.1779175e-40
0.095475346 -1.5226603 0.98457104 8.6653354e-40
-0.06257987 -1.5139912 0.98520207 1.1779175e-40
0.092298806 -1.5151272 0.98470968 8.6545174e-40
-0.057717782 -1.5056742 0.98482513 1.1779175e-40
0.08744397 -1.5056163 0.98485047 8.6473147e-40
-0.051846653 -1.4968472 0.98493004 1.1779175e-40
-0.047336023 -1.4909911 0.98595947 1.1779175e-40
0.077215031 -1.4917539 0.9856239 9.5440477e-40
0.08165694 -1.4971232 0.98480874 8.6364967e-40
-0.042949852 -1.4864841 0.98486882 1.1779175e-40
-0.037342489 -1.4816364 0.98481983 1.1779175e-40
0.06708061 -1.4825853 0.98505825 9.5260129e-40
0.072864614 -1.4874433 0.9844448 9.5404323e-40
-0.032106645 -1.4778013 0.98411369 1.1779175e-40
-0.025673313 -1.4741154 0.98499149 1.1779175e-40
-0.018573314 -1.470733 0.9857356 1.1779175e-40
0.047884405 -1.4710916 0.98633856 9.5151809e-40
0.055785973 -1.4753723 0.98484319 9.5151949e-40
0.062788047 -1.4796009 0.98484737 9.5187963e-40
-0.013200575 -1.4685979 0.9847458 1.1779175e-40
-0.0045152274 -1.4657431 0.98491657 1.1779175e-40
0.0052715526 -1.4642366 0.98559254 1.1779175e-40
0.015030529 -1.4641516 0.98563057 1.1779175e-40
0.024790147 -1.4648594 0.985313 1.1779175e-40
0.034566969 -1.4665065 0.98457408 3.9473877e-40
0.042408831 -1.4687541 0.98509216 9.4935589e-40
0.35996926 -1.6224375 0.99411416 8.3883562e-39
0.36022031 -1.62506 0.99631125 8.4805504e-39
0.35971862 -1.6198192 0.99192029 8.2036048e-39
0.36099491 -1.6048034 0.99563545 7.834095e-39
0.3647013 -1.5937185 0.99415213 7.2798366e-39
0.46569812 -1.5971367 0.99780023 1.1891088e-38
0.36836341 -1.5866274 0.9956606 7.7415378e-39
0.37182888 -1.5821896 0.99519116 7.5571438e-39
0.45738906 -1.5827098 0.9956615 1.2810847e-38
0.46106231 -1.5877831 0.99359477 1.2532454e-38
0.37692532 -1.5765604 0.99499339 7.4645894e-39
0.38201699 -1.5723704 0.99512392 7.5571452e-39
0.44699275 -1.5725564 0.99504679 1.0966936e-38
0.45222878 -1.5768477 0.99646205 1.2166202e-38
0.38740653 -1.5689571 0.99562019 7.5575053e-39
0.39537361 -1.5652868 0.99487281 7.4645894e-39
0.40499201 -1.5626274 0.99596953 8.1110434e-39
0.41501066 -1.5618693 0.99579656 8.6656633e-39
0.42563227 -1.562984 0.99582237 8.2954333e-39
0.4352555 -1.5659769 0.9945876 9.0311906e-39
0.44160452 -1.5690819 0.99647307 1.0507042e-38
0.098687373 -1.535974 0.99451756 8.6725661e-40
-0.065511696 -1.5205768 0.99480438 1.1779175e-40
0.095275916 -1.522796 0.99386114 8.6653494e-40
-0.062315125 -1.5135196 0.99471396 1.1779175e-40
0.092077494 -1.5146284 0.99424005 8.6545174e-40
-0.057668377 -1.5055355 0.99504536 1.1779175e-40
0.087657012 -1.506184 0.99564821 8.6509161e-40
-0.051622182 -1.4965224 0.99431497 1.1779175e-40
-0.047844432 -1.491624 0.99643373 1.1779175e-40
0.078209676 -1.4930851 0.99610835 9.547649e-40
0.081782058 -1.4972358 0.99369943 8.6364967e-40
-0.042945307 -1.4863774 0.99499291 1.1779175e-40
-0.036945727 -1.481236 0.99483538 1.1779175e-40
0.066738725 -1.482415 0.99497372 9.5296143e-40
0.07291428 -1.4876108 0.99445617 9.5404323e-40
-0.033331536 -1.4785298 0.99601686 1.1779175e-40
-0.025522703 -1.4739807 0.99496543 1.1779175e-40
-0.018455822 -1.4706317 0.99491781 1.1779175e-40
0.047116082 -1.4709072 0.99479657 9.5115796e-40
0.055169143 -1.4751892 0.99508715 9.5151949e-40
0.062672906 -1.4795995 0.99402523 9.5187963e-40
-0.012834423 -1.4684829 0.9948523 1.1779175e-40
-0.0051937657 -1.4659795 0.99503666 1.1779175e-40
0.0053175967 -1.4643407 0.99465948 1.1779175e-40
0.015049762 -1.4642481 0.99470043 1.1779175e-40
0.024782335 -1.4649214 0.99440265 1.1779175e-40
0.034526024 -1.4665589 0.99519348 3.9473877e-40
0.041502234 -1.4685531 0.99583244 9.4863562e-40
0.38582146 -1.6613001 1.0049987 1.8801758e-38
0.39507076 -1.6612984 1.0049994 1.6953134e-38
0.40592265 -1.6647463 1.004997 1.6680547e-38
0.41521975 -1.6662163 1.004999 1.4562239e-38
0.42445096 -1.664731 1.005003 1.3180044e-38
0.43515268 -1.6612982 1.0049994 1.6131012e-38
0.37655151 -1.6527615 1.0050021 1.9079434e-38
0.38576189 -1.6527668 1.005 1.6031184e-38
0.39497137 -1.6527685 1.0049995 1.5114684e-38
0.40418115 -1.6527709 1.0049986 8.8472394e-39
0.4149245 -1.6527679 1.0049996 1.2532856e-38
0.42566809 -1.6527662 1.0050002 1.4377481e-38
0.43487644 -1.652763 1.0050015 1.5761867e-38
0.44408557 -1.6527629 1.0050015 1.3642465e-38
0.45176154 -1.6527694 1.004999 1.8620639e-38
0.36889237 -1.6443051 1.0050025 2.1477969e-38
0.37500516 -1.6443058 1.0050023 1.815458e-38
0.38417444 -1.6443071 1.0050017 1.5483469e-38
0.39487273 -1.6443121 1.0049999 9.8621074e-39
0.4055703 -1.6443138 1.0049992 1.7971286e-38
0.41473898 -1.6443125 1.0049998 1.8336096e-38
0.42390767 -1.6443113 1.0050002 1.7692895e-38
0.43460393 -1.6443079 1.0050015 1.1244672e-38
0.4453024 -1.6443127 1.0049996 8.7575703e-39
0.45447052 -1.6443094 1.0050008 1.3181491e-38
0.46058232 -1.6443062 1.005002 2.0188319e-38
0.3658644 -1.6359226 1.0050027 2.0371624e-38
0.3749938 -1.6359237 1.0050023 1.4469322e-38
0.38564482 -1.6359257 1.0050017 1.4378938e-38
0.39477444 -1.6359272 1.0050009 1.8888187e-38
0.40542603 -1.6359309 1.0049995 1.7944648e-38
0.41607627 -1.6359291 1.0050002 1.4445926e-38
0.42520532 -1.6359285 1.0050005 1.8400934e-38
0.43433484 -1.6359297 1.0049999 1.8701265e-38
0.4449847 -1.6359267 1.0050011 1.6129555e-38
0.45563367 -1.6359204 1.0050036 9.4929633e-39
0.46324062 -1.6359179 1.0050045 2.0648569e-38
0.36589336 -1.6276165 1.0050014 1.5762591e-38
0.37498298 -1.6276163 1.0050015 1.5668226e-38
0.38407263 -1.627616 1.0050015 1.8340786e-38
0.39467752 -1.6276171 1.0050011 1.8132635e-38
0.40528274 -1.6276194 1.0050002 4.7928275e-39
0.41437268 -1.6276203 1.005 3.0411217e-39
0.42497712 -1.6276196 1.0050004 6.6316842e-39
0.43558088 -1.6276163 1.0050015 1.9062494e-38
0.44467005 -1.6276144 1.0050024 1.972335e-38
0.45527565 -1.6276176 1.0050009 1.5941173e-38
0.46436614 -1.6276205 1.0049999 2.0277609e-38
0.3599416 -1.611213 1.0050008 2.1295381e-38
0.36444524 -1.6145649 1.0046014 1.4656601e-38
0.37496749 -1.6158798 1.0050008 1.6866751e-38
0.38549939 -1.6147143 1.0050004 1.8888902e-38
0.39528546 -1.6152973 1.0050005 1.4632482e-38
0.405081 -1.6158811 1.0050004 3.5020929e-39
0.41485652 -1.6152984 1.005 1.0877337e-38
0.42462233 -1.6147138 1.0050005 6.7285644e-39
0.43519393 -1.6158804 1.0050006 1.6102545e-38
0.44495967 -1.6152958 1.0050011 1.907653e-38
0.45471662 -1.6147124 1.0050012 1.8060932e-38
0.46452448 -1.6152973 1.0050004 1.8338605e-38
0.36375785 -1.6028677 1.0043004 1.567074e-38
0.37495014 -1.6031148 1.0050011 1.6775647e-38
0.3854191 -1.6031152 1.0050008 1.778507e-38
0.39439312 -1.6031183 1.0049996 1.767381e-38
0.40486166 -1.603117 1.0050001 9.4843327e-39
0.4153305 -1.6031165 1.0050002 1.5487096e-38
0.42430377 -1.6031166 1.0050002 1.2897345e-38
0.43477184 -1.6031135 1.0050015 1.8865129e-38
0.44524083 -1.6031138 1.0050014 2.0092853e-38
0.45421323 -1.6031109 1.0050025 1.8244962e-38
0.46318534 -1.6031069 1.0050043 1.7415929e-38
0.36553755 -1.5942736 1.0032034 1.1983624e-38
0.3749398 -1.5950885 1.0050001 1.4656246e-38
0.38536459 -1.5950902 1.0049994 1.7511031e-38
0.39578888 -1.5950896 1.0049995 1.5015622e-38
0.40472326 -1.5950862 1.0050009 1.7854238e-38
0.4151479 -1.5950875 1.0050005 1.9801522e-38
0.42557287 -1.5950898 1.0049995 1.9887933e-38
0.43450677 -1.595085 1.0050014 1.7597785e-38
0.44493049 -1.5950826 1.0050024 2.0738948e-38
0.45535502 -1.5950831 1.0050021 1.649107e-38
0.4633368 -1.5947447 1.0040759 1.788161e-38
0.36779872 -1.5876799 1.0031915 8.6656647e-39
0.37357834 -1.58504 1.0040265 1.1981833e-38
0.38530922 -1.5871272 1.0050002 1.3456996e-38
0.39420772 -1.587132 1.0049983 1.7881262e-38
0.4045856 -1.5871223 1.0050021 1.6219934e-38
0.41496721 -1.5871278 1.005 1.9541502e-38
0.42534763 -1.5871283 1.0049998 2.0184688e-38
0.43572786 -1.587128 1.0049998 2.0923702e-38
0.44462323 -1.5871209 1.0050026 1.9446035e-38
0.4557651 -1.5856091 1.0040249 1.6035886e-38
0.37716344 -1.5771327 1.0032128 1.1798873e-38
0.38449246 -1.5747598 1.0039637 1.2442083e-38
0.39553449 -1.5747558 1.005002 1.3545555e-38
0.4051173 -1.5753125 1.0050031 1.3269324e-38
0.41471168 -1.5758799 1.0049998 1.8158571e-38
0.42499772 -1.5747603 1.0050004 2.0646394e-38
0.43534812 -1.5758818 1.004999 1.8615192e-38
0.4452329 -1.5746318 1.0040941 1.539052e-38
0.45253548 -1.578218 1.0043563 1.5301941e-38
0.38783634 -1.5687283 1.0029345 8.7578604e-39
0.39458022 -1.5655839 1.0026382 8.7578604e-39
0.40506527 -1.5630224 1.0034578 1.2997052e-38
0.41501614 -1.5628701 1.003969 1.5025717e-38
0.42476138 -1.563233 1.0035964 1.4195958e-38
0.43418303 -1.5655602 1.0026479 1.0140795e-38
0.44069052 -1.5685914 1.0029901 1.1339338e-38
0.098504432 -1.537273 1.0048763 8.6761675e-40
-0.065283187 -1.5201675 1.0027164 1.1779175e-40
0.094988167 -1.5218143 1.0051095 8.6617341e-40
-0.062824637 -1.5147505 1.0049934 1.1779175e-40
0.091818765 -1.5140022 1.005302 8.6545174e-40
-0.057615433 -1.5053428 1.005224 1.1779175e-40
0.087230682 -1.5056038 1.0057722 8.6473147e-40
-0.052876305 -1.4981714 1.0043298 1.1779175e-40
-0.048388556 -1.4923595 1.0052797 1.1779175e-40
0.078348406 -1.4933214 1.0048693 9.547649e-40
0.082765959 -1.4985832 1.0041548 8.6473007e-40
-0.042531073 -1.4859787 1.004963 1.1779175e-40
-0.038188886 -1.482142 1.0050898 1.1779175e-40
0.066806488 -1.482581 1.0049014 9.5296003e-40
0.072336599 -1.4872392 1.0050737 9.536831e-40
-0.033673789 -1.4787674 1.0056734 1.1779175e-40
-0.0250444 -1.4737262 1.0052203 1.1779175e-40
-0.018339006 -1.470531 1.004047 1.1779175e-40
0.047239807 -1.4710653 1.0046774 9.5079782e-40
0.055793516 -1.4756544 1.0053185 9.5115936e-40
0.062539324 -1.4795948 1.0046674 9.5187963e-40
-0.014125903 -1.4689356 1.0047388 1.1779175e-40
-0.0053457278 -1.4661068 1.0051044 1.1779175e-40
0.0053708679 -1.4644713 1.0051689 1.1779175e-40
0.015072056 -1.4643615 1.0052166 1.1779175e-40
0.024773274 -1.4649924 1.0049422 1.1779175e-40
0.034485213 -1.4666003 1.0057514 3.9473877e-40
0.041447774 -1.4685873 1.00489 9.4899575e-40
-0.068518668 -1.5352167 1.0165472 1.1779175e-40
0.098070286 -1.5329627 1.0159261 8.6689368e-40
0.094727986 -1.5213542 1.0160637 8.6581328e-40
-0.063328035 -1.5159128 1.0152426 1.1779175e-40
0.09158653 -1.5138994 1.0160723 8.6581187e-40
-0.057122588 -1.5043855 1.0154406 1.1779175e-40
0.087037034 -1.5053514 1.0150393 8.6509021e-40
-0.052612908 -1.4978011 1.0151422 1.1779175e-40
-0.047953282 -1.4918646 1.0152475 1.1779175e-40
0.077966414 -1.492992 1.0147746 9.5512503e-40
0.082559317 -1.4983827 1.0148994 8.640098e-40
-0.04212337 -1.4856538 1.0148357 1.1779175e-40
-0.038012963 -1.4819708 1.0142359 1.1779175e-40
0.066874154 -1.4827772 1.0147563 9.5296003e-40
0.072388843 -1.4874214 1.0149544 9.536831e-40
-0.03370535 -1.4788508 1.0155557 1.1779175e-40
-0.025547536 -1.47396 1.0150851 1.1779175e-40
-0.018204641 -1.4704511 1.014614 1.1779175e-40
0.046761025 -1.4709759 1.0150343 9.5079782e-40
0.055474263 -1.4755546 1.0151021 9.5151949e-40
0.062407549 -1.4796247 1.0152284 9.5187963e-40
-0.014006678 -1.4689004 1.015275 1.1779175e-40
-0.0056622233 -1.4663711 1.0148582 1.1779175e-40
0.0054221121 -1.4647404 1.015555 1.1779175e-40
0.015094087 -1.4644942 1.01566 1.1779175e-40
0.024764249 -1.4650594 1.0154186 1.1779175e-40
0.035004325 -1.4668308 1.0149615 7.6424296e-40
0.041854545 -1.4688249 1.0143088 9.5007615e-40
-0.068192855 -1.5333036 1.0250028 1.1779175e-40
0.09785255 -1.5321479 1.0239338 8.6653354e-40
0.094499446 -1.52082 1.0254465 8.6581328e-40
-0.063011535 -1.5152316 1.0261908 1.1779175e-40
0.091391586 -1.5138718 1.025221 8.6581187e-40
-0.056873251 -1.5038551 1.0247613 1.1779175e-40
0.086620413 -1.5048681 1.0249935 8.6509161e-40
-0.052358616 -1.4975761 1.025824 1.1779175e-40
-0.047944199 -1.4919595 1.0251236 1.1779175e-40
0.077999115 -1.4930797 1.0246612 9.547635e-40
0.08235696 -1.4982544 1.0255455 9.5512503e-40
-0.042138029 -1.485908 1.0246215 1.1779175e-40
-0.03781154 -1.4818321 1.0248126 1.1779175e-40
0.066322811 -1.4824383 1.0252036 9.5296003e-40
0.072436355 -1.4874958 1.0248207 9.536831e-40
-0.033549089 -1.4788381 1.0245633 1.1779175e-40
-0.025075058 -1.4738439 1.0251526 1.1779175e-40
-0.018077755 -1.4706069 1.0250157 1.1779175e-40
0.046887353 -1.4712287 1.0247551 9.5079782e-40
0.054863781 -1.4753591 1.0251597 9.5151949e-40
0.062295545 -1.4796591 1.0242211 9.5187963e-40
-0.013890264 -1.4689445 1.0257119 1.1779175e-40
-0.0055765226 -1.4666228 1.025196 1.1779175e-40
0.0051467591 -1.4653318 1.0247102 1.1779175e-40
0.01511108 -1.4649503 1.0244135 1.1779175e-40
0.025074067 -1.4653294 1.0247109 3.9437864e-40
0.035795737 -1.4672782 1.0249208 8.5680012e-40
0.042712081 -1.4693879 1.0255264 9.5079782e-40
-0.067919709 -1.5329168 1.0343196 1.1779175e-40
0.097549625 -1.5307842 1.0346527 8.6761535e-40
0.095075108 -1.5228226 1.035284 8.6653354e-40
-0.062758513 -1.5149397 1.0353937 1.1779175e-40
0.091191173 -1.5137058 1.0343739 8.6545174e-40
-0.056628279 -1.5040503 1.0352348 1.1779175e-40
0.086835138 -1.5054737 1.0355214 8.6509301e-40
-0.052165132 -1.4978346 1.0347384 1.1779175e-40
-0.047960848 -1.4925978 1.0347198 1.1779175e-40
0.07803376 -1.4932432 1.0344578 9.5512503e-40
0.08218684 -1.4981986 1.0345913 9.5656557e-40
-0.04193851 -1.4861063 1.0350103 1.1779175e-40
-0.036484528 -1.4814914 1.0359994 1.1779175e-40
0.066391312 -1.482608 1.0349485 9.5260129e-40
0.071864106 -1.4870818 1.0352533 9.5404323e-40
-0.032922108 -1.4787755 1.034035 1.1779175e-40
-0.024618872 -1.4740815 1.0350115 1.1779175e-40
-0.017021054 -1.4707235 1.0363513 1.1779175e-40
0.045978975 -1.4714028 1.0356776 9.5187963e-40
0.055487812 -1.4760197 1.0351291 9.5187963e-40
0.062167816 -1.4797751 1.0346172 9.5223976e-40
-0.013528727 -1.4692299 1.0339085 1.1779175e-40
-0.0054961215 -1.4671108 1.0353751 1.1779175e-40
0.0057833926 -1.4661257 1.0345981 1.1779175e-40
0.015129309 -1.4657922 1.0344402 1.1779175e-40
0.024473511 -1.4658554 1.0347098 6.7132706e-40
0.035756901 -1.4679112 1.0350449 9.5007615e-40
0.042671055 -1.4698801 1.0327516 9.5079782e-40
-0.068213165 -1.5439371 1.0437219 1.1779175e-40
0.097732127 -1.5407569 1.0449458 9.6738079e-40
-0.067966275 -1.5371088 1.0402838 1.1779175e-40
0.097567782 -1.5354714 1.0424407 8.7049922e-40
-0.064326279 -1.5244055 1.0467449 1.1779175e-40
0.094175167 -1.5237421 1.0454972 9.6377665e-40
-0.061712455 -1.5154051 1.0439427 1.1779175e-40
-0.058005437 -1.5103203 1.0477386 1.1779175e-40
0.087983362 -1.5113025 1.0488496 1.0563324e-39
0.091025405 -1.5149273 1.0444317 9.6161445e-40
-0.055428829 -1.5051302 1.0455078 1.1779175e-40
0.08541806 -1.5049944 1.0455618 9.6161305e-40
-0.05201669 -1.4989547 1.043264 1.1779175e-40
-0.046721317 -1.4934034 1.045771 1.1779175e-40
0.07682474 -1.49377 1.0456251 9.5981098e-40
0.082059599 -1.4991552 1.0431839 9.5908931e-40
-0.041526638 -1.4874794 1.0442747 1.1779175e-40
-0.034943815 -1.4827695 1.0456764 1.1779175e-40
0.065129787 -1.4831954 1.0455055 9.5764877e-40
0.071671486 -1.4879111 1.0441015 9.5764877e-40
-0.031874318 -1.479264 1.0422469 1.1779175e-40
-0.024843236 -1.4760512 1.0450201 3.0254314e-40
-0.015443569 -1.4718069 1.0456283 1.1779175e-40
-0.0095473416 -1.4704714 1.0487403 9.4827409e-40
0.038014133 -1.4705588 1.0467452 9.547635e-40
0.045648932 -1.4727814 1.0454555 9.5404323e-40
0.054803941 -1.476754 1.0450321 9.5512363e-40
0.062080644 -1.4799867 1.0419548 9.5260129e-40
-0.01235182 -1.4697139 1.0416905 1.1779175e-40
-0.0051597464 -1.4683636 1.0448877 3.9473877e-40
0.0055560074 -1.4671376 1.045678 2.1070905e-40
0.015149426 -1.4669317 1.0457617 3.9618211e-40
0.024742205 -1.4675252 1.0455217 8.6040426e-40
0.034355707 -1.4689006 1.0434927 9.5296003e-40
-0.06512484 -1.5448922 1.0539768 1.1779175e-40
0.093377411 -1.544763 1.0555296 9.6738219e-40
-0.063132927 -1.5336722 1.0552151 2.0998738e-40
0.093017951 -1.53521 1.05463 9.6774232e-40
-0.06132254 -1.5247293 1.0541316 1.1779175e-40
-0.05827003 -1.5219014 1.0582044 1.1779175e-40
0.08826033 -1.5241957 1.0588248 1.0595778e-39
0.091225661 -1.5252748 1.0539228 1.0592163e-39
-0.061142541 -1.5188401 1.0504055 1.1779175e-40
-0.056381561 -1.5139226 1.0552958 2.0998738e-40
0.085864045 -1.5147933 1.0560801 1.0588562e-39
0.091079719 -1.5194598 1.0501653 1.0581359e-39
-0.053025246 -1.506456 1.0537223 1.1779175e-40
-0.047928821 -1.5022069 1.0574481 3.9474017e-40
0.078016661 -1.5026649 1.0572711 1.0577758e-39
0.082663484 -1.50611 1.0535591 1.0570541e-39
-0.043492615 -1.4949956 1.0547298 6.7096693e-40
-0.037511181 -1.4912311 1.0581682 8.5679872e-40
0.06768278 -1.4909276 1.0568132 1.0563324e-39
0.073619224 -1.4953078 1.0546077 1.0559737e-39
-0.040344086 -1.4887488 1.0502874 1.1779175e-40
-0.034398619 -1.4866405 1.0551443 5.8021323e-40
-0.026207263 -1.4816058 1.0560548 7.6496463e-40
0.048117775 -1.4801646 1.0595558 1.0534485e-39
0.056706142 -1.4827275 1.0561484 1.0541688e-39
0.064292066 -1.4869518 1.0548342 1.0545303e-39
0.070505962 -1.4892271 1.0500979 1.0534499e-39
-0.022478506 -1.4780855 1.0535301 8.5680012e-40
-0.015275373 -1.4751263 1.0547798 8.5716026e-40
-0.0057912418 -1.4722666 1.0559778 9.5187963e-40
